8.0 -0.535714 289.4378756
16.0 -0.535714 292.64821344999996
24.0 -0.535714 298.17176995
32.0 -0.535714 303.87423425
40.0 -0.535714 309.3868895
48.0 -0.535714 315.21529434999997
56.0 -0.535714 321.1361817
64.0 -0.535714 326.14661375
72.0 -0.535714 329.4874436
80.0 -0.535714 331.19264799999996
88.0 -0.535714 331.76581434999997
8.0 -1.68956 289.4378756
16.0 -1.68956 292.64821344999996
24.0 -1.68956 298.17176995
32.0 -1.68956 303.87423425
40.0 -1.68956 309.3868895
48.0 -1.68956 315.21529434999997
56.0 -1.68956 321.1361817
64.0 -1.68956 326.14661375
72.0 -1.68956 329.4874436
80.0 -1.68956 331.19264799999996
88.0 -1.68956 331.76581434999997
8.0 -3.008242 289.4378756
16.0 -3.008242 292.64821344999996
24.0 -3.008242 298.17176995
32.0 -3.008242 303.87423425
40.0 -3.008242 309.3868895
48.0 -3.008242 315.21529434999997
56.0 -3.008242 321.1361817
64.0 -3.008242 326.14661375
72.0 -3.008242 329.4874436
80.0 -3.008242 331.19264799999996
88.0 -3.008242 331.76581434999997
8.0 -4.491758 289.4378756
16.0 -4.491758 292.64821344999996
24.0 -4.491758 298.17176995
32.0 -4.491758 303.87423425
40.0 -4.491758 309.3868895
48.0 -4.491758 315.21529434999997
56.0 -4.491758 321.1361817
64.0 -4.491758 326.14661375
72.0 -4.491758 329.4874436
80.0 -4.491758 331.19264799999996
88.0 -4.491758 331.76581434999997
8.0 -6.14011 289.4378756
16.0 -6.14011 292.64821344999996
24.0 -6.14011 298.17176995
32.0 -6.14011 303.87423425
40.0 -6.14011 309.3868895
48.0 -6.14011 315.21529434999997
56.0 -6.14011 321.1361817
64.0 -6.14011 326.14661375
72.0 -6.14011 329.4874436
80.0 -6.14011 331.19264799999996
88.0 -6.14011 331.76581434999997
8.0 -7.953297 289.4378756
16.0 -7.953297 292.64821344999996
24.0 -7.953297 298.17176995
32.0 -7.953297 303.87423425
40.0 -7.953297 309.3868895
48.0 -7.953297 315.21529434999997
56.0 -7.953297 321.1361817
64.0 -7.953297 326.14661375
72.0 -7.953297 329.4874436
80.0 -7.953297 331.19264799999996
88.0 -7.953297 331.76581434999997
8.0 -9.931318 304.35303235000003
16.0 -9.931318 306.26981789999996
24.0 -9.931318 310.38017435
32.0 -9.931318 315.7712391
40.0 -9.931318 321.1231648
48.0 -9.931318 325.31756774999997
56.0 -9.931318 328.05655835
64.0 -9.931318 329.76228525
72.0 -9.931318 330.90220924999994
80.0 -9.931318 331.61595565
88.0 -9.931318 331.9072361
8.0 -12.074175 304.35303235000003
16.0 -12.074175 306.26981789999996
24.0 -12.074175 310.38353735
32.0 -12.074175 315.80469525
40.0 -12.074175 321.27360205
48.0 -12.074175 325.72716214999997
56.0 -12.074175 328.8482057
64.0 -12.074175 331.03687555
72.0 -12.074175 332.8472915
80.0 -12.074175 334.38918614999994
88.0 -12.074175 335.23125
8.0 -14.381867 315.49729615
16.0 -14.381867 315.2018129
24.0 -14.381867 315.6955412
32.0 -14.381867 318.11634829999997
40.0 -14.381867 322.0945892
48.0 -14.381867 326.25370914999996
56.0 -14.381867 329.56908375
64.0 -14.381867 331.88989860000004
72.0 -14.381867 333.5592405
80.0 -14.381867 334.80968179999996
88.0 -14.381867 335.46344425
8.0 -16.854395 316.98016349999995
16.0 -16.854395 316.9614352
24.0 -16.854395 317.6479584
32.0 -16.854395 319.8113478
40.0 -16.854395 323.29812139999996
48.0 -16.854395 327.11876394999996
56.0 -16.854395 330.27616305
64.0 -16.854395 332.42398385
72.0 -16.854395 333.8601454
80.0 -16.854395 334.92335785
88.0 -16.854395 335.49910439999996
8.0 -19.491756 337.05920580000003
16.0 -19.491756 336.64186985
24.0 -19.491756 335.64023545000003
32.0 -19.491756 334.4329346
40.0 -19.491756 333.86950955000003
48.0 -19.491756 334.4329346
56.0 -19.491756 335.64023545000003
64.0 -19.491756 336.64633484999996
72.0 -19.491756 337.11585525
80.0 -19.491756 337.23657649999996
88.0 -19.491756 337.25
8.0 -22.293957 337.05920580000003
16.0 -22.293957 336.64186985
24.0 -22.293957 335.64023545000003
32.0 -22.293957 334.4329346
40.0 -22.293957 333.86950955000003
48.0 -22.293957 334.4329346
56.0 -22.293957 335.64023545000003
64.0 -22.293957 336.64633484999996
72.0 -22.293957 337.11585525
80.0 -22.293957 337.23657649999996
88.0 -22.293957 337.25
8.0 -25.260988 337.05920580000003
16.0 -25.260988 336.64186985
24.0 -25.260988 335.64023545000003
32.0 -25.260988 334.4329346
40.0 -25.260988 333.86950955000003
48.0 -25.260988 334.4329346
56.0 -25.260988 335.64023545000003
64.0 -25.260988 336.64633484999996
72.0 -25.260988 337.11585525
80.0 -25.260988 337.23657649999996
88.0 -25.260988 337.25
8.0 -31.607141 337.05920580000003
16.0 -31.607141 336.64186985
24.0 -31.607141 335.64023545000003
32.0 -31.607141 334.4329346
40.0 -31.607141 333.86950955000003
48.0 -31.607141 334.4329346
56.0 -31.607141 335.64023545000003
64.0 -31.607141 336.64633484999996
72.0 -31.607141 337.11585525
80.0 -31.607141 337.23657649999996
88.0 -31.607141 337.25
8.0 -41.25 337.25
16.0 -41.25 337.25
24.0 -41.25 337.25
32.0 -41.25 337.25
40.0 -41.25 337.25
48.0 -41.25 337.25
56.0 -41.25 337.25
64.0 -41.25 337.25
72.0 -41.25 337.25
80.0 -41.25 337.25
88.0 -41.25 337.25
